 -120. -1900. -1.01292975
 -120. -1800. -1.01221807
 -120. -1700. -1.01152782
 -120. -1600. -1.01086036
 -120. -1500. -1.0102167
 -120. -1400. -1.0095976
 -120. -1300. -1.00900357
 -120. -1200. -1.00843488
 -120. -1100. -1.00789162
 -120. -1000. -1.00737372
 -120. -900. -1.00688096
 -120. -800. -1.00641298
 -120. -700. -1.00596934
 -120. -600. -1.00554949
 -120. -500. -1.00515282
 -120. -400. -1.00477865
 -120. -300. -1.00442627
 -120. -200. -1.0040949
 -120. -100. -1.00378375
 -120.  0. -1.00349202
 -120.  100. -1.00321889
 -120.  200. -1.00296352
 -120.  300. -1.0027251
 -120.  400. -1.00250279
 -120.  500. -1.00229579
 -120.  600. -1.0021033
 -120.  700. -1.00192455
 -120.  800. -1.00175876
 -120.  900. -1.0016052
 -120.  1000. -1.00146315
 -120.  1100. -1.00133192
 -120.  1200. -1.00121084
 -120.  1300. -1.00109927
 -120.  1400. -1.0009966
 -120.  1500. -1.00090225
 -120.  1600. -1.00081565
 -120.  1700. -1.00073627
 -120.  1800. -1.00066361
 -120.  1900. -1.00059719
 -120.  2000. -1.00053656
 -120.  2100. -1.00048128
 -120.  2200. -1.00043096
 -120.  2300. -1.00038522
 -120.  2400. -1.0003437
 -120.  2500. -1.00030607
 -120.  2600. -1.00027202
 -120.  2700. -1.00024125
 -120.  2800. -1.00021349
 -120.  2900. -1.00018849
 -120.  3000. -1.00016601
 -120.  3100. -1.00014583
 -120.  3200. -1.00012775
 -120.  3300. -1.00011159
 -120.  3400. -1.00009716
 -120.  3500. -1.0000843
 -120.  3600. -1.00007288
 -120.  3700. -1.00006274
 -120.  3800. -1.00005378
 -120.  3900. -1.00004586
 -120.  4000. -1.00003889
 -120.  4100. -1.00003277
 -120.  4200. -1.00002741
 -120.  4300. -1.00002273
 -120.  4400. -1.00001867
 -120.  4500. -1.00001514
 -120.  4600. -1.0000121
 -120.  4700. -1.00000948
 -120.  4800. -1.00000724
 -120.  4900. -1.00000534
 -120.  5000. -1.00000373
 -120.  5100. -1.00000238
 -120.  5200. -1.00000125
 -120.  5300. -1.00000032
 -120.  5400. -0.999999567
 -120.  5500. -0.999998956
 -120.  5600. -0.999998474
 -120.  5700. -0.999998101
 -120.  5800. -0.999997821
 -120.  5900. -0.99999762
 -120.  6000. -0.999997486
 -120.  6100. -0.999997408
 -120.  6200. -0.999997377
 -120.  6300. -0.999997383
 -120.  6400. -0.99999742
 -120.  6500. -0.999997481
 -120.  6600. -0.999997562
 -120.  6700. -0.999997657
 -120.  6800. -0.999997762
 -120.  6900. -0.999997876
 -120.  7000. -0.999997993
 -120.  7100. -0.999998113
 -120.  7200. -0.999998233
 -120.  7300. -0.999998353
 -120.  7400. -0.999998469
 -120.  7500. -0.999998583
 -120.  7600. -0.999998692
 -120.  7700. -0.999998796
 -120.  7800. -0.999998896
 -120.  7900. -0.99999899
 -120.  8000. -0.999999078
 -120.  8100. -0.999999161
 -120.  8200. -0.999999239
 -120.  8300. -0.999999311
 -120.  8400. -0.999999377
 -120.  8500. -0.999999439
 -120.  8600. -0.999999496
 -120.  8700. -0.999999548
 -120.  8800. -0.999999596
 -120.  8900. -0.999999639
 -120.  9000. -0.999999679
 -120.  9100. -0.999999715
 -120.  9200. -0.999999748
 -120.  9300. -0.999999777
 -120.  9400. -0.999999804
 -120.  9500. -0.999999828
 -120.  9600. -0.99999985
 -120.  9700. -0.999999869
 -120.  9800. -0.999999886
 -120.  9900. -0.999999902
 -120.  10000. -0.999999916
 -120.  10100. -0.999999928
 -120.  10200. -0.999999939
 -120.  10300. -0.999999948
 -120.  10400. -0.999999957
 -120.  10500. -0.999999964
 -120.  10600. -0.999999971
 -120.  10700. -0.999999977
 -120.  10800. -0.999999982
 -120.  10900. -0.999999986
 -120.  11000. -0.99999999
 -120.  11100. -0.999999994
 -120.  11200. -0.999999997
 -120.  11300. -0.999999999
 -120.  11400. -1.
 -120.  11500. -1.
 -120.  11600. -1.00000001
 -120.  11700. -1.00000001
 -120.  11800. -1.00000001
 -120.  11900. -1.00000001
 -120.  12000. -1.00000001
 -120.  12100. -1.00000001
 -120.  12200. -1.00000001
 -120.  12300. -1.00000001
 -120.  12400. -1.00000001
 -120.  12500. -1.00000001
 -120.  12600. -1.00000001
 -120.  12700. -1.00000001
 -120.  12800. -1.00000001
 -120.  12900. -1.00000001
 -120.  13000. -1.00000001
 -120.  13100. -1.00000001
 -120.  13200. -1.00000001
 -120.  13300. -1.00000001
 -120.  13400. -1.00000001
 -120.  13500. -1.00000001
 -120.  13600. -1.00000001
 -120.  13700. -1.00000001
 -120.  13800. -1.00000001
 -120.  13900. -1.00000001
 -120.  14000. -1.00000001
 -120.  14100. -1.00000001
 -120.  14200. -1.00000001
 -120.  14300. -1.00000001
 -120.  14400. -1.00000001
 -120.  14500. -1.00000001
 -120.  14600. -1.00000001
 -120.  14700. -1.00000001
 -120.  14800. -1.00000001
 -120.  14900. -1.00000001
 -120.  15000. -1.00000001
 -120.  15100. -1.00000001
 -120.  15200. -1.00000001
 -120.  15300. -1.00000001
 -120.  15400. -1.00000001
 -120.  15500. -1.00000001
 -120.  15600. -1.00000001
 -120.  15700. -1.00000001
 -120.  15800. -1.00000001
 -120.  15900. -1.00000001
 -120.  16000. -1.00000001
 -120.  16100. -1.00000001
 -120.  16200. -1.00000001
 -120.  16300. -1.00000001
 -120.  16400. -1.00000001
 -120.  16500. -1.00000001
 -120.  16600. -1.00000001
 -120.  16700. -1.00000001
 -120.  16800. -1.00000001
 -120.  16900. -1.00000001
 -120.  17000. -1.00000001
 -120.  17100. -1.00000001
 -120.  17200. -1.00000001
 -120.  17300. -1.00000001
 -120.  17400. -1.00000001
 -120.  17500. -1.00000001
 -120.  17600. -1.00000001
 -120.  17700. -1.00000001
 -120.  17800. -1.00000001
 -120.  17900. -1.00000001
 -120.  18000. -1.00000001
 -120.  18100. -1.00000001
 -120.  18200. -1.00000001
 -120.  18300. -1.00000001
 -120.  18400. -1.00000001
 -120.  18500. -1.00000001
 -120.  18600. -1.00000001
 -120.  18700. -1.00000001
 -120.  18800. -1.00000001
 -120.  18900. -1.00000001
 -120.  19000. -1.00000001
 -120.  19100. -1.00000001
 -120.  19200. -1.00000001
 -120.  19300. -1.00000001
 -120.  19400. -1.00000001
 -120.  19500. -1.00000001
 -120.  19600. -1.00000001
 -120.  19700. -1.00000001
 -120.  19800. -1.00000001
 -120.  19900. -1.00000001
 -120.  20000. -1.00000001
 -115. -2000. -1.07256665
 -115. -1900. -1.06830108
 -115. -1800. -1.06423476
 -115. -1700. -1.06036257
 -115. -1600. -1.05667915
 -115. -1500. -1.05317891
 -115. -1400. -1.04985609
 -115. -1300. -1.04670481
 -115. -1200. -1.04371913
 -115. -1100. -1.04089304
 -115. -1000. -1.0382205
 -115. -900. -1.03569552
 -115. -800. -1.03331211
 -115. -700. -1.03106435
 -115. -600. -1.02894641
 -115. -500. -1.02695254
 -115. -400. -1.02507711
 -115. -300. -1.02331458
 -115. -200. -1.02165959
 -115. -100. -1.02010689
 -115.  0. -1.01865137
 -115.  100. -1.01728811
 -115.  200. -1.0160123
 -115.  300. -1.01481935
 -115.  400. -1.01370477
 -115.  500. -1.01266429
 -115.  600. -1.01169377
 -115.  700. -1.01078926
 -115.  800. -1.00994695
 -115.  900. -1.00916321
 -115.  1000. -1.00843457
 -115.  1100. -1.0077577
 -115.  1200. -1.00712945
 -115.  1300. -1.0065468
 -115.  1400. -1.00600689
 -115.  1500. -1.00550699
 -115.  1600. -1.00504453
 -115.  1700. -1.00461706
 -115.  1800. -1.00422226
 -115.  1900. -1.00385794
 -115.  2000. -1.00352204
 -115.  2100. -1.00321259
 -115.  2200. -1.00292777
 -115.  2300. -1.00266583
 -115.  2400. -1.00242515
 -115.  2500. -1.00220419
 -115.  2600. -1.00200153
 -115.  2700. -1.0018158
 -115.  2800. -1.00164575
 -115.  2900. -1.00149019
 -115.  3000. -1.00134803
 -115.  3100. -1.00121822
 -115.  3200. -1.00109981
 -115.  3300. -1.00099189
 -115.  3400. -1.00089363
 -115.  3500. -1.00080426
 -115.  3600. -1.00072304
 -115.  3700. -1.00064931
 -115.  3800. -1.00058245
 -115.  3900. -1.00052187
 -115.  4000. -1.00046705
 -115.  4100. -1.00041749
 -115.  4200. -1.00037273
 -115.  4300. -1.00033236
 -115.  4400. -1.00029598
 -115.  4500. -1.00026323
 -115.  4600. -1.00023379
 -115.  4700. -1.00020736
 -115.  4800. -1.00018365
 -115.  4900. -1.00016241
 -115.  5000. -1.00014341
 -115.  5100. -1.00012643
 -115.  5200. -1.00011128
 -115.  5300. -1.00009778
 -115.  5400. -1.00008577
 -115.  5500. -1.00007509
 -115.  5600. -1.00006562
 -115.  5700. -1.00005723
 -115.  5800. -1.0000498
 -115.  5900. -1.00004325
 -115.  6000. -1.00003747
 -115.  6100. -1.00003238
 -115.  6200. -1.00002791
 -115.  6300. -1.00002399
 -115.  6400. -1.00002056
 -115.  6500. -1.00001756
 -115.  6600. -1.00001495
 -115.  6700. -1.00001268
 -115.  6800. -1.00001071
 -115.  6900. -1.00000901
 -115.  7000. -1.00000753
 -115.  7100. -1.00000627
 -115.  7200. -1.00000518
 -115.  7300. -1.00000425
 -115.  7400. -1.00000346
 -115.  7500. -1.00000279
 -115.  7600. -1.00000222
 -115.  7700. -1.00000174
 -115.  7800. -1.00000134
 -115.  7900. -1.00000101
 -115.  8000. -1.00000073
 -115.  8100. -1.0000005
 -115.  8200. -1.00000032
 -115.  8300. -1.00000017
 -115.  8400. -1.00000005
 -115.  8500. -0.999999961
 -115.  8600. -0.99999989
 -115.  8700. -0.999999836
 -115.  8800. -0.999999798
 -115.  8900. -0.999999771
 -115.  9000. -0.999999754
 -115.  9100. -0.999999746
 -115.  9200. -0.999999743
 -115.  9300. -0.999999746
 -115.  9400. -0.999999752
 -115.  9500. -0.999999762
 -115.  9600. -0.999999773
 -115.  9700. -0.999999786
 -115.  9800. -0.9999998
 -115.  9900. -0.999999814
 -115.  10000. -0.999999829
 -115.  10100. -0.999999843
 -115.  10200. -0.999999857
 -115.  10300. -0.99999987
 -115.  10400. -0.999999883
 -115.  10500. -0.999999895
 -115.  10600. -0.999999907
 -115.  10700. -0.999999917
 -115.  10800. -0.999999927
 -115.  10900. -0.999999936
 -115.  11000. -0.999999945
 -115.  11100. -0.999999952
 -115.  11200. -0.999999959
 -115.  11300. -0.999999966
 -115.  11400. -0.999999971
 -115.  11500. -0.999999977
 -115.  11600. -0.999999981
 -115.  11700. -0.999999985
 -115.  11800. -0.999999989
 -115.  11900. -0.999999992
 -115.  12000. -0.999999995
 -115.  12100. -0.999999998
 -115.  12200. -1.
 -115.  12300. -1.
 -115.  12400. -1.
 -115.  12500. -1.00000001
 -115.  12600. -1.00000001
 -115.  12700. -1.00000001
 -115.  12800. -1.00000001
 -115.  12900. -1.00000001
 -115.  13000. -1.00000001
 -115.  13100. -1.00000001
 -115.  13200. -1.00000001
 -115.  13300. -1.00000001
 -115.  13400. -1.00000001
 -115.  13500. -1.00000001
 -115.  13600. -1.00000001
 -115.  13700. -1.00000001
 -115.  13800. -1.00000001
 -115.  13900. -1.00000001
 -115.  14000. -1.00000001
 -115.  14100. -1.00000001
 -115.  14200. -1.00000001
 -115.  14300. -1.00000001
 -115.  14400. -1.00000001
 -115.  14500. -1.00000001
 -115.  14600. -1.00000001
 -115.  14700. -1.00000001
 -115.  14800. -1.00000001
 -115.  14900. -1.00000001
 -115.  15000. -1.00000001
 -115.  15100. -1.00000001
 -115.  15200. -1.00000001
 -115.  15300. -1.00000001
 -115.  15400. -1.00000001
 -115.  15500. -1.00000001
 -115.  15600. -1.00000001
 -115.  15700. -1.00000001
 -115.  15800. -1.00000001
 -115.  15900. -1.00000001
 -115.  16000. -1.00000001
 -115.  16100. -1.00000001
 -115.  16200. -1.00000001
 -115.  16300. -1.00000001
 -115.  16400. -1.00000001
 -115.  16500. -1.00000001
 -115.  16600. -1.00000001
 -115.  16700. -1.00000001
 -115.  16800. -1.00000001
 -115.  16900. -1.00000001
 -115.  17000. -1.00000001
 -115.  17100. -1.00000001
 -115.  17200. -1.00000001
 -115.  17300. -1.00000001
 -115.  17400. -1.00000001
 -115.  17500. -1.00000001
 -115.  17600. -1.00000001
 -115.  17700. -1.00000001
 -115.  17800. -1.00000001
 -115.  17900. -1.00000001
 -115.  18000. -1.00000001
 -115.  18100. -1.00000001
 -115.  18200. -1.00000001
 -115.  18300. -1.00000001
 -115.  18400. -1.00000001
 -115.  18500. -1.00000001
 -115.  18600. -1.00000001
 -115.  18700. -1.00000001
 -115.  18800. -1.00000001
 -115.  18900. -1.00000001
 -115.  19000. -1.00000001
 -115.  19100. -1.00000001
 -115.  19200. -1.00000001
 -115.  19300. -1.00000001
 -115.  19400. -1.00000001
 -115.  19500. -1.00000001
 -115.  19600. -1.00000001
 -115.  19700. -1.00000001
 -115.  19800. -1.00000001
 -115.  19900. -1.00000001
 -115.  20000. -1.00000001
 -110. -2000. -1.23988111
 -110. -1900. -1.2260546
 -110. -1800. -1.21289603
 -110. -1700. -1.20038236
 -110. -1600. -1.18849067
 -110. -1500. -1.17719816
 -110. -1400. -1.1664823
 -110. -1300. -1.1563208
 -110. -1200. -1.14669172
 -110. -1100. -1.13757349
 -110. -1000. -1.12894493
 -110. -900. -1.12078531
 -110. -800. -1.11307439
 -110. -700. -1.10579239
 -110. -600. -1.09892006
 -110. -500. -1.09243869
 -110. -400. -1.08633008
 -110. -300. -1.08057661
 -110. -200. -1.0751612
 -110. -100. -1.07006734
 -110.  0. -1.06527907
 -110.  100. -1.06078102
 -110.  200. -1.05655834
 -110.  300. -1.05259678
 -110.  400. -1.04888261
 -110.  500. -1.04540266
 -110.  600. -1.04214427
 -110.  700. -1.03909535
 -110.  800. -1.03624428
 -110.  900. -1.03357998
 -110.  1000. -1.03109184
 -110.  1100. -1.02876974
 -110.  1200. -1.02660402
 -110.  1300. -1.0245855
 -110.  1400. -1.0227054
 -110.  1500. -1.02095541
 -110.  1600. -1.0193276
 -110.  1700. -1.01781446
 -110.  1800. -1.01640886
 -110.  1900. -1.01510402
 -110.  2000. -1.01389356
 -110.  2100. -1.01277142
 -110.  2200. -1.01173185
 -110.  2300. -1.01076945
 -110.  2400. -1.0098791
 -110.  2500. -1.009056
 -110.  2600. -1.00829558
 -110.  2700. -1.00759358
 -110.  2800. -1.00694597
 -110.  2900. -1.00634895
 -110.  3000. -1.00579898
 -110.  3100. -1.00529272
 -110.  3200. -1.00482703
 -110.  3300. -1.00439898
 -110.  3400. -1.00400582
 -110.  3500. -1.00364497
 -110.  3600. -1.00331403
 -110.  3700. -1.00301076
 -110.  3800. -1.00273305
 -110.  3900. -1.00247894
 -110.  4000. -1.00224662
 -110.  4100. -1.00203439
 -110.  4200. -1.00184066
 -110.  4300. -1.00166396
 -110.  4400. -1.00150293
 -110.  4500. -1.0013563
 -110.  4600. -1.00122289
 -110.  4700. -1.00110161
 -110.  4800. -1.00099146
 -110.  4900. -1.0008915
 -110.  5000. -1.00080087
 -110.  5100. -1.00071877
 -110.  5200. -1.00064446
 -110.  5300. -1.00057727
 -110.  5400. -1.00051656
 -110.  5500. -1.00046177
 -110.  5600. -1.00041237
 -110.  5700. -1.00036787
 -110.  5800. -1.00032781
 -110.  5900. -1.0002918
 -110.  6000. -1.00025946
 -110.  6100. -1.00023044
 -110.  6200. -1.00020443
 -110.  6300. -1.00018114
 -110.  6400. -1.00016031
 -110.  6500. -1.0001417
 -110.  6600. -1.0001251
 -110.  6700. -1.00011029
 -110.  6800. -1.00009711
 -110.  6900. -1.00008539
 -110.  7000. -1.00007498
 -110.  7100. -1.00006574
 -110.  7200. -1.00005756
 -110.  7300. -1.00005032
 -110.  7400. -1.00004392
 -110.  7500. -1.00003827
 -110.  7600. -1.00003329
 -110.  7700. -1.00002891
 -110.  7800. -1.00002506
 -110.  7900. -1.00002168
 -110.  8000. -1.00001872
 -110.  8100. -1.00001614
 -110.  8200. -1.00001388
 -110.  8300. -1.00001191
 -110.  8400. -1.00001019
 -110.  8500. -1.0000087
 -110.  8600. -1.00000741
 -110.  8700. -1.00000629
 -110.  8800. -1.00000533
 -110.  8900. -1.0000045
 -110.  9000. -1.00000379
 -110.  9100. -1.00000317
 -110.  9200. -1.00000265
 -110.  9300. -1.0000022
 -110.  9400. -1.00000182
 -110.  9500. -1.0000015
 -110.  9600. -1.00000123
 -110.  9700. -1.000001
 -110.  9800. -1.0000008
 -110.  9900. -1.00000064
 -110.  10000. -1.00000051
 -110.  10100. -1.0000004
 -110.  10200. -1.00000031
 -110.  10300. -1.00000023
 -110.  10400. -1.00000017
 -110.  10500. -1.00000012
 -110.  10600. -1.00000008
 -110.  10700. -1.00000005
 -110.  10800. -1.00000003
 -110.  10900. -1.00000001
 -110.  11000. -0.999999996
 -110.  11100. -0.999999986
 -110.  11200. -0.999999979
 -110.  11300. -0.999999974
 -110.  11400. -0.999999972
 -110.  11500. -0.999999971
 -110.  11600. -0.999999971
 -110.  11700. -0.999999972
 -110.  11800. -0.999999973
 -110.  11900. -0.999999975
 -110.  12000. -0.999999978
 -110.  12100. -0.99999998
 -110.  12200. -0.999999983
 -110.  12300. -0.999999985
 -110.  12400. -0.999999988
 -110.  12500. -0.99999999
 -110.  12600. -0.999999993
 -110.  12700. -0.999999995
 -110.  12800. -0.999999997
 -110.  12900. -0.999999999
 -110.  13000. -1.
 -110.  13100. -1.
 -110.  13200. -1.
 -110.  13300. -1.00000001
 -110.  13400. -1.00000001
 -110.  13500. -1.00000001
 -110.  13600. -1.00000001
 -110.  13700. -1.00000001
 -110.  13800. -1.00000001
 -110.  13900. -1.00000001
 -110.  14000. -1.00000001
 -110.  14100. -1.00000001
 -110.  14200. -1.00000001
 -110.  14300. -1.00000001
 -110.  14400. -1.00000001
 -110.  14500. -1.00000001
 -110.  14600. -1.00000001
 -110.  14700. -1.00000001
 -110.  14800. -1.00000001
 -110.  14900. -1.00000001
 -110.  15000. -1.00000001
 -110.  15100. -1.00000001
 -110.  15200. -1.00000001
 -110.  15300. -1.00000001
 -110.  15400. -1.00000001
 -110.  15500. -1.00000001
 -110.  15600. -1.00000001
 -110.  15700. -1.00000001
 -110.  15800. -1.00000001
 -110.  15900. -1.00000001
 -110.  16000. -1.00000001
 -110.  16100. -1.00000001
 -110.  16200. -1.00000001
 -110.  16300. -1.00000001
 -110.  16400. -1.00000001
 -110.  16500. -1.00000001
 -110.  16600. -1.00000001
 -110.  16700. -1.00000001
 -110.  16800. -1.00000001
 -110.  16900. -1.00000001
 -110.  17000. -1.00000001
 -110.  17100. -1.00000001
 -110.  17200. -1.00000001
 -110.  17300. -1.00000001
 -110.  17400. -1.00000001
 -110.  17500. -1.00000001
 -110.  17600. -1.00000001
 -110.  17700. -1.00000001
 -110.  17800. -1.00000001
 -110.  17900. -1.00000001
 -110.  18000. -1.00000001
 -110.  18100. -1.00000001
 -110.  18200. -1.00000001
 -110.  18300. -1.00000001
 -110.  18400. -1.00000001
 -110.  18500. -1.00000001
 -110.  18600. -1.00000001
 -110.  18700. -1.00000001
 -110.  18800. -1.00000001
 -110.  18900. -1.00000001
 -110.  19000. -1.00000001
 -110.  19100. -1.00000001
 -110.  19200. -1.00000001
 -110.  19300. -1.00000001
 -110.  19400. -1.00000001
 -110.  19500. -1.00000001
 -110.  19600. -1.00000001
 -110.  19700. -1.00000001
 -110.  19800. -1.00000001
 -110.  19900. -1.00000001
 -110.  20000. -1.00000001
 -105. -2000. -1.65911186
 -105. -1900. -1.62253277
 -105. -1800. -1.58768538
 -105. -1700. -1.55450729
 -105. -1600. -1.52293704
 -105. -1500. -1.4929142
 -105. -1400. -1.46437944
 -105. -1300. -1.43727459
 -105. -1200. -1.41154274
 -105. -1100. -1.38712823
 -105. -1000. -1.36397677
 -105. -900. -1.34203541
 -105. -800. -1.3212526
 -105. -700. -1.30157823
 -105. -600. -1.2829636
 -105. -500. -1.26536148
 -105. -400. -1.24872606
 -105. -300. -1.23301302
 -105. -200. -1.21817947
 -105. -100. -1.20418396
 -105.  0. -1.19098649
 -105.  100. -1.17854847
 -105.  200. -1.16683271
 -105.  300. -1.15580341
 -105.  400. -1.14542613
 -105.  500. -1.13566775
 -105.  600. -1.12649649
 -105.  700. -1.11788185
 -105.  800. -1.10979457
 -105.  900. -1.10220662
 -105.  1000. -1.09509119
 -105.  1100. -1.08842262
 -105.  1200. -1.08217637
 -105.  1300. -1.07632902
 -105.  1400. -1.07085822
 -105.  1500. -1.06574263
 -105.  1600. -1.06096195
 -105.  1700. -1.05649681
 -105.  1800. -1.05232881
 -105.  1900. -1.04844043
 -105.  2000. -1.04481502
 -105.  2100. -1.04143679
 -105.  2200. -1.03829073
 -105.  2300. -1.03536263
 -105.  2400. -1.03263901
 -105.  2500. -1.0301071
 -105.  2600. -1.02775484
 -105.  2700. -1.02557079
 -105.  2800. -1.02354416
 -105.  2900. -1.02166476
 -105.  3000. -1.01992297
 -105.  3100. -1.01830971
 -105.  3200. -1.01681644
 -105.  3300. -1.0154351
 -105.  3400. -1.01415811
 -105.  3500. -1.01297834
 -105.  3600. -1.01188908
 -105.  3700. -1.01088406
 -105.  3800. -1.00995735
 -105.  3900. -1.00910343
 -105.  4000. -1.00831708
 -105.  4100. -1.00759345
 -105.  4200. -1.00692799
 -105.  4300. -1.00631644
 -105.  4400. -1.0057548
 -105.  4500. -1.00523938
 -105.  4600. -1.00476668
 -105.  4700. -1.00433348
 -105.  4800. -1.00393676
 -105.  4900. -1.00357371
 -105.  5000. -1.0032417
 -105.  5100. -1.00293831
 -105.  5200. -1.00266127
 -105.  5300. -1.00240849
 -105.  5400. -1.002178
 -105.  5500. -1.00196802
 -105.  5600. -1.00177685
 -105.  5700. -1.00160295
 -105.  5800. -1.00144488
 -105.  5900. -1.00130132
 -105.  6000. -1.00117103
 -105.  6100. -1.00105289
 -105.  6200. -1.00094585
 -105.  6300. -1.00084895
 -105.  6400. -1.0007613
 -105.  6500. -1.00068209
 -105.  6600. -1.00061056
 -105.  6700. -1.00054602
 -105.  6800. -1.00048785
 -105.  6900. -1.00043547
 -105.  7000. -1.00038833
 -105.  7100. -1.00034596
 -105.  7200. -1.0003079
 -105.  7300. -1.00027375
 -105.  7400. -1.00024314
 -105.  7500. -1.00021573
 -105.  7600. -1.0001912
 -105.  7700. -1.00016928
 -105.  7800. -1.00014971
 -105.  7900. -1.00013225
 -105.  8000. -1.00011669
 -105.  8100. -1.00010285
 -105.  8200. -1.00009054
 -105.  8300. -1.0000796
 -105.  8400. -1.0000699
 -105.  8500. -1.00006131
 -105.  8600. -1.0000537
 -105.  8700. -1.00004697
 -105.  8800. -1.00004104
 -105.  8900. -1.0000358
 -105.  9000. -1.00003118
 -105.  9100. -1.00002713
 -105.  9200. -1.00002356
 -105.  9300. -1.00002043
 -105.  9400. -1.00001769
 -105.  9500. -1.00001529
 -105.  9600. -1.0000132
 -105.  9700. -1.00001137
 -105.  9800. -1.00000978
 -105.  9900. -1.00000839
 -105.  10000. -1.00000719
 -105.  10100. -1.00000615
 -105.  10200. -1.00000525
 -105.  10300. -1.00000447
 -105.  10400. -1.0000038
 -105.  10500. -1.00000322
 -105.  10600. -1.00000272
 -105.  10700. -1.00000229
 -105.  10800. -1.00000193
 -105.  10900. -1.00000162
 -105.  11000. -1.00000135
 -105.  11100. -1.00000113
 -105.  11200. -1.00000094
 -105.  11300. -1.00000078
 -105.  11400. -1.00000064
 -105.  11500. -1.00000053
 -105.  11600. -1.00000043
 -105.  11700. -1.00000035
 -105.  11800. -1.00000028
 -105.  11900. -1.00000023
 -105.  12000. -1.00000018
 -105.  12100. -1.00000015
 -105.  12200. -1.00000012
 -105.  12300. -1.00000009
 -105.  12400. -1.00000007
 -105.  12500. -1.00000005
 -105.  12600. -1.00000004
 -105.  12700. -1.00000003
 -105.  12800. -1.00000002
 -105.  12900. -1.00000002
 -105.  13000. -1.00000001
 -105.  13100. -1.00000001
 -105.  13200. -1.00000001
 -105.  13300. -1.00000001
 -105.  13400. -1.00000001
 -105.  13500. -1.00000001
 -105.  13600. -1.00000001
 -105.  13700. -1.00000001
 -105.  13800. -1.00000001
 -105.  13900. -1.00000001
 -105.  14000. -1.00000001
 -105.  14100. -1.00000001
 -105.  14200. -1.00000001
 -105.  14300. -1.00000001
 -105.  14400. -1.00000001
 -105.  14500. -1.00000001
 -105.  14600. -1.00000001
 -105.  14700. -1.00000001
 -105.  14800. -1.00000001
 -105.  14900. -1.00000001
 -105.  15000. -1.00000001
 -105.  15100. -1.00000001
 -105.  15200. -1.00000001
 -105.  15300. -1.00000001
 -105.  15400. -1.00000001
 -105.  15500. -1.00000001
 -105.  15600. -1.00000001
 -105.  15700. -1.00000001
 -105.  15800. -1.00000001
 -105.  15900. -1.00000001
 -105.  16000. -1.00000001
 -105.  16100. -1.00000001
 -105.  16200. -1.00000001
 -105.  16300. -1.00000001
 -105.  16400. -1.00000001
 -105.  16500. -1.00000001
 -105.  16600. -1.00000001
 -105.  16700. -1.00000001
 -105.  16800. -1.00000001
 -105.  16900. -1.00000001
 -105.  17000. -1.00000001
 -105.  17100. -1.00000001
 -105.  17200. -1.00000001
 -105.  17300. -1.00000001
 -105.  17400. -1.00000001
 -105.  17500. -1.00000001
 -105.  17600. -1.00000001
 -105.  17700. -1.00000001
 -105.  17800. -1.00000001
 -105.  17900. -1.00000001
 -105.  18000. -1.00000001
 -105.  18100. -1.00000001
 -105.  18200. -1.00000001
 -105.  18300. -1.00000001
 -105.  18400. -1.00000001
 -105.  18500. -1.00000001
 -105.  18600. -1.00000001
 -105.  18700. -1.00000001
 -105.  18800. -1.00000001
 -105.  18900. -1.00000001
 -105.  19000. -1.00000001
 -105.  19100. -1.00000001
 -105.  19200. -1.00000001
 -105.  19300. -1.00000001
 -105.  19400. -1.00000001
 -105.  19500. -1.00000001
 -105.  19600. -1.00000001
 -105.  19700. -1.00000001
 -105.  19800. -1.00000001
 -105.  19900. -1.00000001
 -105.  20000. -1.00000001
 -100. -2000. -2.62337683
 -100. -1900. -2.53713547
 -100. -1800. -2.45482978
 -100. -1700. -2.37631967
 -100. -1600. -2.30146763
 -100. -1500. -2.23013879
 -100. -1400. -2.16220111
 -100. -1300. -2.09752542
 -100. -1200. -2.03598549
 -100. -1100. -1.97745812
 -100. -1000. -1.9218232
 -100. -900. -1.86896372
 -100. -800. -1.8187658
 -100. -700. -1.77111875
 -100. -600. -1.72591504
 -100. -500. -1.6830503
 -100. -400. -1.64242335
 -100. -300. -1.60393615
 -100. -200. -1.56749379
 -100. -100. -1.53300448
 -100.  0. -1.5003795
 -100.  100. -1.46953315
 -100.  200. -1.44038274
 -100.  300. -1.41284855
 -100.  400. -1.38685372
 -100.  500. -1.36232427
 -100.  600. -1.33918899
 -100.  700. -1.31737944
 -100.  800. -1.29682982
 -100.  900. -1.27747696
 -100.  1000. -1.25926024
 -100.  1100. -1.24212152
 -100.  1200. -1.2260051
 -100.  1300. -1.21085762
 -100.  1400. -1.196628
 -100.  1500. -1.18326739
 -100.  1600. -1.17072912
 -100.  1700. -1.15896856
 -100.  1800. -1.14794314
 -100.  1900. -1.13761222
 -100.  2000. -1.12793708
 -100.  2100. -1.11888078
 -100.  2200. -1.11040818
 -100.  2300. -1.10248581
 -100.  2400. -1.09508185
 -100.  2500. -1.08816605
 -100.  2600. -1.08170967
 -100.  2700. -1.07568542
 -100.  2800. -1.07006741
 -100.  2900. -1.06483108
 -100.  3000. -1.05995317
 -100.  3100. -1.05541164
 -100.  3200. -1.05118563
 -100.  3300. -1.0472554
 -100.  3400. -1.0436023
 -100.  3500. -1.04020869
 -100.  3600. -1.03705794
 -100.  3700. -1.03413432
 -100.  3800. -1.03142303
 -100.  3900. -1.0289101
 -100.  4000. -1.02658238
 -100.  4100. -1.02442748
 -100.  4200. -1.02243375
 -100.  4300. -1.02059023
 -100.  4400. -1.01888663
 -100.  4500. -1.01731328
 -100.  4600. -1.01586112
 -100.  4700. -1.01452162
 -100.  4800. -1.01328681
 -100.  4900. -1.01214922
 -100.  5000. -1.01110186
 -100.  5100. -1.01013819
 -100.  5200. -1.00925207
 -100.  5300. -1.0084378
 -100.  5400. -1.00769004
 -100.  5500. -1.0070038
 -100.  5600. -1.00637445
 -100.  5700. -1.00579764
 -100.  5800. -1.00526936
 -100.  5900. -1.00478585
 -100.  6000. -1.00434361
 -100.  6100. -1.00393941
 -100.  6200. -1.00357024
 -100.  6300. -1.00323328
 -100.  6400. -1.00292596
 -100.  6500. -1.00264587
 -100.  6600. -1.00239078
 -100.  6700. -1.00215864
 -100.  6800. -1.00194752
 -100.  6900. -1.00175568
 -100.  7000. -1.00158149
 -100.  7100. -1.00142343
 -100.  7200. -1.00128014
 -100.  7300. -1.00115033
 -100.  7400. -1.00103283
 -100.  7500. -1.00092655
 -100.  7600. -1.0008305
 -100.  7700. -1.00074377
 -100.  7800. -1.00066551
 -100.  7900. -1.00059497
 -100.  8000. -1.00053143
 -100.  8100. -1.00047424
 -100.  8200. -1.00042282
 -100.  8300. -1.00037663
 -100.  8400. -1.00033516
 -100.  8500. -1.00029798
 -100.  8600. -1.00026466
 -100.  8700. -1.00023484
 -100.  8800. -1.00020817
 -100.  8900. -1.00018435
 -100.  9000. -1.00016308
 -100.  9100. -1.00014411
 -100.  9200. -1.00012722
 -100.  9300. -1.00011218
 -100.  9400. -1.00009882
 -100.  9500. -1.00008695
 -100.  9600. -1.00007642
 -100.  9700. -1.00006708
 -100.  9800. -1.00005882
 -100.  9900. -1.00005151
 -100.  10000. -1.00004506
 -100.  10100. -1.00003937
 -100.  10200. -1.00003435
 -100.  10300. -1.00002993
 -100.  10400. -1.00002605
 -100.  10500. -1.00002264
 -100.  10600. -1.00001965
 -100.  10700. -1.00001703
 -100.  10800. -1.00001474
 -100.  10900. -1.00001274
 -100.  11000. -1.00001099
 -100.  11100. -1.00000947
 -100.  11200. -1.00000815
 -100.  11300. -1.000007
 -100.  11400. -1.000006
 -100.  11500. -1.00000513
 -100.  11600. -1.00000439
 -100.  11700. -1.00000374
 -100.  11800. -1.00000319
 -100.  11900. -1.00000271
 -100.  12000. -1.0000023
 -100.  12100. -1.00000194
 -100.  12200. -1.00000164
 -100.  12300. -1.00000138
 -100.  12400. -1.00000116
 -100.  12500. -1.00000098
 -100.  12600. -1.00000082
 -100.  12700. -1.00000068
 -100.  12800. -1.00000057
 -100.  12900. -1.00000047
 -100.  13000. -1.00000039
 -100.  13100. -1.00000033
 -100.  13200. -1.00000027
 -100.  13300. -1.00000022
 -100.  13400. -1.00000018
 -100.  13500. -1.00000015
 -100.  13600. -1.00000012
 -100.  13700. -1.0000001
 -100.  13800. -1.00000008
 -100.  13900. -1.00000007
 -100.  14000. -1.00000006
 -100.  14100. -1.00000005
 -100.  14200. -1.00000004
 -100.  14300. -1.00000003
 -100.  14400. -1.00000003
 -100.  14500. -1.00000002
 -100.  14600. -1.00000002
 -100.  14700. -1.00000002
 -100.  14800. -1.00000002
 -100.  14900. -1.00000002
 -100.  15000. -1.00000001
 -100.  15100. -1.00000001
 -100.  15200. -1.00000001
 -100.  15300. -1.00000001
 -100.  15400. -1.00000001
 -100.  15500. -1.00000001
 -100.  15600. -1.00000001
 -100.  15700. -1.00000001
 -100.  15800. -1.00000001
 -100.  15900. -1.00000001
 -100.  16000. -1.00000001
 -100.  16100. -1.00000001
 -100.  16200. -1.00000001
 -100.  16300. -1.00000001
 -100.  16400. -1.00000001
 -100.  16500. -1.00000001
 -100.  16600. -1.00000001
 -100.  16700. -1.00000001
 -100.  16800. -1.00000001
 -100.  16900. -1.00000001
 -100.  17000. -1.00000001
 -100.  17100. -1.00000001
 -100.  17200. -1.00000001
 -100.  17300. -1.00000001
 -100.  17400. -1.00000001
 -100.  17500. -1.00000001
 -100.  17600. -1.00000001
 -100.  17700. -1.00000001
 -100.  17800. -1.00000001
 -100.  17900. -1.00000001
 -100.  18000. -1.00000001
 -100.  18100. -1.00000001
 -100.  18200. -1.00000001
 -100.  18300. -1.00000001
 -100.  18400. -1.00000001
 -100.  18500. -1.00000001
 -100.  18600. -1.00000001
 -100.  18700. -1.00000001
 -100.  18800. -1.00000001
 -100.  18900. -1.00000001
 -100.  19000. -1.00000001
 -100.  19100. -1.00000001
 -100.  19200. -1.00000001
 -100.  19300. -1.00000001
 -100.  19400. -1.00000001
 -100.  19500. -1.00000001
 -100.  19600. -1.00000001
 -100.  19700. -1.00000001
 -100.  19800. -1.00000001
 -100.  19900. -1.00000001
 -100.  20000. -1.00000001
 -95. -2000. -4.70110686
 -95. -1900. -4.51332803
 -95. -1800. -4.33375261
 -95. -1700. -4.16209832
 -95. -1600. -3.99808825
 -95. -1500. -3.84145103
 -95. -1400. -3.69192099
 -95. -1300. -3.54923831
 -95. -1200. -3.41314906
 -95. -1100. -3.28340534
 -95. -1000. -3.15976531
 -95. -900. -3.04199329
 -95. -800. -2.92985971
 -95. -700. -2.82314122
 -95. -600. -2.72162059
 -95. -500. -2.6250868
 -95. -400. -2.53333495
 -95. -300. -2.44616623
 -95. -200. -2.36338792
 -95. -100. -2.28481326
 -95.  0. -2.21026148
 -95.  100. -2.13955763
 -95.  200. -2.07253258
 -95.  300. -2.00902289
 -95.  400. -1.94887073
 -95.  500. -1.89192381
 -95.  600. -1.83803522
 -95.  700. -1.78706338
 -95.  800. -1.73887191
 -95.  900. -1.6933295
 -95.  1000. -1.65030984
 -95.  1100. -1.60969146
 -95.  1200. -1.57135764
 -95.  1300. -1.53519626
 -95.  1400. -1.50109972
 -95.  1500. -1.46896479
 -95.  1600. -1.43869249
 -95.  1700. -1.41018798
 -95.  1800. -1.38336043
 -95.  1900. -1.35812289
 -95.  2000. -1.33439219
 -95.  2100. -1.31208883
 -95.  2200. -1.29113681
 -95.  2300. -1.27146356
 -95.  2400. -1.25299982
 -95.  2500. -1.2356795
 -95.  2600. -1.21943959
 -95.  2700. -1.20422006
 -95.  2800. -1.1899637
 -95.  2900. -1.1766161
 -95.  3000. -1.16412544
 -95.  3100. -1.15244249
 -95.  3200. -1.14152044
 -95.  3300. -1.13131484
 -95.  3400. -1.12178348
 -95.  3500. -1.11288633
 -95.  3600. -1.1045854
 -95.  3700. -1.09684471
 -95.  3800. -1.08963018
 -95.  3900. -1.08290952
 -95.  4000. -1.07665219
 -95.  4100. -1.07082933
 -95.  4200. -1.06541362
 -95.  4300. -1.06037929
 -95.  4400. -1.055702
 -95.  4500. -1.05135877
 -95.  4600. -1.04732793
 -95.  4700. -1.04358908
 -95.  4800. -1.04012297
 -95.  4900. -1.0369115
 -95.  5000. -1.03393764
 -95.  5100. -1.03118535
 -95.  5200. -1.02863958
 -95.  5300. -1.02628619
 -95.  5400. -1.0241119
 -95.  5500. -1.02210424
 -95.  5600. -1.02025155
 -95.  5700. -1.01854286
 -95.  5800. -1.01696793
 -95.  5900. -1.01551716
 -95.  6000. -1.01418158
 -95.  6100. -1.01295279
 -95.  6200. -1.01182296
 -95.  6300. -1.01078475
 -95.  6400. -1.00983135
 -95.  6500. -1.00895637
 -95.  6600. -1.00815389
 -95.  6700. -1.00741836
 -95.  6800. -1.00674465
 -95.  6900. -1.00612796
 -95.  7000. -1.00556384
 -95.  7100. -1.00504815
 -95.  7200. -1.00457706
 -95.  7300. -1.00414701
 -95.  7400. -1.00375468
 -95.  7500. -1.00339701
 -95.  7600. -1.00307119
 -95.  7700. -1.00277457
 -95.  7800. -1.00250473
 -95.  7900. -1.00225944
 -95.  8000. -1.00203663
 -95.  8100. -1.00183438
 -95.  8200. -1.00165093
 -95.  8300. -1.00148466
 -95.  8400. -1.00133408
 -95.  8500. -1.00119781
 -95.  8600. -1.00107459
 -95.  8700. -1.00096325
 -95.  8800. -1.00086273
 -95.  8900. -1.00077206
 -95.  9000. -1.00069032
 -95.  9100. -1.00061671
 -95.  9200. -1.00055047
 -95.  9300. -1.00049091
 -95.  9400. -1.0004374
 -95.  9500. -1.00038938
 -95.  9600. -1.00034631
 -95.  9700. -1.00030772
 -95.  9800. -1.00027317
 -95.  9900. -1.00024227
 -95.  10000. -1.00021466
 -95.  10100. -1.00019001
 -95.  10200. -1.00016802
 -95.  10300. -1.00014843
 -95.  10400. -1.00013099
 -95.  10500. -1.00011548
 -95.  10600. -1.0001017
 -95.  10700. -1.00008947
 -95.  10800. -1.00007862
 -95.  10900. -1.00006901
 -95.  11000. -1.00006051
 -95.  11100. -1.000053
 -95.  11200. -1.00004637
 -95.  11300. -1.00004052
 -95.  11400. -1.00003536
 -95.  11500. -1.00003083
 -95.  11600. -1.00002684
 -95.  11700. -1.00002334
 -95.  11800. -1.00002027
 -95.  11900. -1.00001758
 -95.  12000. -1.00001523
 -95.  12100. -1.00001317
 -95.  12200. -1.00001138
 -95.  12300. -1.00000982
 -95.  12400. -1.00000846
 -95.  12500. -1.00000727
 -95.  12600. -1.00000625
 -95.  12700. -1.00000536
 -95.  12800. -1.00000459
 -95.  12900. -1.00000392
 -95.  13000. -1.00000335
 -95.  13100. -1.00000285
 -95.  13200. -1.00000243
 -95.  13300. -1.00000206
 -95.  13400. -1.00000175
 -95.  13500. -1.00000148
 -95.  13600. -1.00000125
 -95.  13700. -1.00000106
 -95.  13800. -1.00000089
 -95.  13900. -1.00000075
 -95.  14000. -1.00000063
 -95.  14100. -1.00000053
 -95.  14200. -1.00000044
 -95.  14300. -1.00000037
 -95.  14400. -1.00000031
 -95.  14500. -1.00000026
 -95.  14600. -1.00000021
 -95.  14700. -1.00000018
 -95.  14800. -1.00000015
 -95.  14900. -1.00000012
 -95.  15000. -1.0000001
 -95.  15100. -1.00000008
 -95.  15200. -1.00000007
 -95.  15300. -1.00000006
 -95.  15400. -1.00000005
 -95.  15500. -1.00000004
 -95.  15600. -1.00000004
 -95.  15700. -1.00000003
 -95.  15800. -1.00000003
 -95.  15900. -1.00000002
 -95.  16000. -1.00000002
 -95.  16100. -1.00000002
 -95.  16200. -1.00000002
 -95.  16300. -1.00000002
 -95.  16400. -1.00000002
 -95.  16500. -1.00000002
 -95.  16600. -1.00000002
 -95.  16700. -1.00000001
 -95.  16800. -1.00000001
 -95.  16900. -1.00000001
 -95.  17000. -1.00000001
 -95.  17100. -1.00000001
 -95.  17200. -1.00000001
 -95.  17300. -1.00000001
 -95.  17400. -1.00000001
 -95.  17500. -1.00000001
 -95.  17600. -1.00000001
 -95.  17700. -1.00000001
 -95.  17800. -1.00000001
 -95.  17900. -1.00000001
 -95.  18000. -1.00000001
 -95.  18100. -1.00000001
 -95.  18200. -1.00000001
 -95.  18300. -1.00000001
 -95.  18400. -1.00000001
 -95.  18500. -1.00000001
 -95.  18600. -1.00000001
 -95.  18700. -1.00000001
 -95.  18800. -1.00000001
 -95.  18900. -1.00000001
 -95.  19000. -1.00000001
 -95.  19100. -1.00000001
 -95.  19200. -1.00000001
 -95.  19300. -1.00000001
 -95.  19400. -1.00000001
 -95.  19500. -1.00000001
 -95.  19600. -1.00000001
 -95.  19700. -1.00000001
 -95.  19800. -1.00000001
 -95.  19900. -1.00000001
 -95.  20000. -1.00000001
 -90. -2000. -8.94654883
 -90. -1900. -8.56186558
 -90. -1800. -8.19321488
 -90. -1700. -7.84006906
 -90. -1600. -7.50191031
 -90. -1500. -7.17823094
 -90. -1400. -6.86853361
 -90. -1300. -6.57233148
 -90. -1200. -6.28914841
 -90. -1100. -6.01851907
 -90. -1000. -5.759989
 -90. -900. -5.51311473
 -90. -800. -5.27746379
 -90. -700. -5.05261475
 -90. -600. -4.83815718
 -90. -500. -4.63369169
 -90. -400. -4.43882984
 -90. -300. -4.25319408
 -90. -200. -4.07641773
 -90. -100. -3.90814481
 -90.  0. -3.74803
 -90.  100. -3.5957385
 -90.  200. -3.45094589
 -90.  300. -3.31333801
 -90.  400. -3.18261079
 -90.  500. -3.05847014
 -90.  600. -2.94063171
 -90.  700. -2.82882078
 -90.  800. -2.72277206
 -90.  900. -2.62222949
 -90.  1000. -2.52694609
 -90.  1100. -2.43668373
 -90.  1200. -2.35121294
 -90.  1300. -2.27031274
 -90.  1400. -2.19377039
 -90.  1500. -2.12138126
 -90.  1600. -2.05294852
 -90.  1700. -1.98828305
 -90.  1800. -1.92720316
 -90.  1900. -1.86953441
 -90.  2000. -1.81510939
 -90.  2100. -1.76376755
 -90.  2200. -1.71535497
 -90.  2300. -1.66972417
 -90.  2400. -1.62673391
 -90.  2500. -1.58624898
 -90.  2600. -1.54814005
 -90.  2700. -1.51228341
 -90.  2800. -1.47856084
 -90.  2900. -1.44685941
 -90.  3000. -1.41707128
 -90.  3100. -1.38909354
 -90.  3200. -1.36282801
 -90.  3300. -1.3381811
 -90.  3400. -1.31506362
 -90.  3500. -1.29339062
 -90.  3600. -1.27308123
 -90.  3700. -1.25405851
 -90.  3800. -1.23624926
 -90.  3900. -1.21958393
 -90.  4000. -1.20399643
 -90.  4100. -1.18942399
 -90.  4200. -1.17580706
 -90.  4300. -1.16308912
 -90.  4400. -1.1512166
 -90.  4500. -1.14013872
 -90.  4600. -1.12980739
 -90.  4700. -1.12017708
 -90.  4800. -1.11120471
 -90.  4900. -1.10284952
 -90.  5000. -1.09507302
 -90.  5100. -1.08783881
 -90.  5200. -1.08111253
 -90.  5300. -1.07486176
 -90.  5400. -1.06905591
 -90.  5500. -1.06366616
 -90.  5600. -1.05866531
 -90.  5700. -1.0540278
 -90.  5800. -1.04972953
 -90.  5900. -1.04574785
 -90.  6000. -1.04206144
 -90.  6100. -1.0386503
 -90.  6200. -1.03549561
 -90.  6300. -1.03257973
 -90.  6400. -1.0298861
 -90.  6500. -1.02739919
 -90.  6600. -1.02510445
 -90.  6700. -1.02298826
 -90.  6800. -1.02103786
 -90.  6900. -1.01924131
 -90.  7000. -1.01758747
 -90.  7100. -1.0160659
 -90.  7200. -1.01466687
 -90.  7300. -1.01338129
 -90.  7400. -1.01220068
 -90.  7500. -1.01111715
 -90.  7600. -1.01012333
 -90.  7700. -1.00921237
 -90.  7800. -1.0083779
 -90.  7900. -1.00761397
 -90.  8000. -1.00691507
 -90.  8100. -1.0062761
 -90.  8200. -1.00569229
 -90.  8300. -1.00515924
 -90.  8400. -1.00467286
 -90.  8500. -1.00422936
 -90.  8600. -1.00382525
 -90.  8700. -1.00345727
 -90.  8800. -1.00312244
 -90.  8900. -1.00281797
 -90.  9000. -1.00254132
 -90.  9100. -1.00229012
 -90.  9200. -1.0020622
 -90.  9300. -1.00185554
 -90.  9400. -1.00166832
 -90.  9500. -1.00149881
 -90.  9600. -1.00134548
 -90.  9700. -1.00120687
 -90.  9800. -1.00108167
 -90.  9900. -1.00096867
 -90.  10000. -1.00086676
 -90.  10100. -1.00077493
 -90.  10200. -1.00069225
 -90.  10300. -1.00061786
 -90.  10400. -1.000551
 -90.  10500. -1.00049094
 -90.  10600. -1.00043704
 -90.  10700. -1.00038872
 -90.  10800. -1.00034542
 -90.  10900. -1.00030667
 -90.  11000. -1.00027201
 -90.  11100. -1.00024105
 -90.  11200. -1.00021341
 -90.  11300. -1.00018875
 -90.  11400. -1.00016678
 -90.  11500. -1.00014723
 -90.  11600. -1.00012984
 -90.  11700. -1.00011438
 -90.  11800. -1.00010066
 -90.  11900. -1.0000885
 -90.  12000. -1.00007772
 -90.  12100. -1.00006819
 -90.  12200. -1.00005975
 -90.  12300. -1.00005231
 -90.  12400. -1.00004574
 -90.  12500. -1.00003995
 -90.  12600. -1.00003485
 -90.  12700. -1.00003037
 -90.  12800. -1.00002643
 -90.  12900. -1.00002298
 -90.  13000. -1.00001995
 -90.  13100. -1.0000173
 -90.  13200. -1.00001499
 -90.  13300. -1.00001296
 -90.  13400. -1.0000112
 -90.  13500. -1.00000966
 -90.  13600. -1.00000832
 -90.  13700. -1.00000716
 -90.  13800. -1.00000615
 -90.  13900. -1.00000528
 -90.  14000. -1.00000452
 -90.  14100. -1.00000387
 -90.  14200. -1.00000331
 -90.  14300. -1.00000282
 -90.  14400. -1.0000024
 -90.  14500. -1.00000204
 -90.  14600. -1.00000174
 -90.  14700. -1.00000147
 -90.  14800. -1.00000125
 -90.  14900. -1.00000105
 -90.  15000. -1.00000089
 -90.  15100. -1.00000075
 -90.  15200. -1.00000063
 -90.  15300. -1.00000053
 -90.  15400. -1.00000045
 -90.  15500. -1.00000037
 -90.  15600. -1.00000031
 -90.  15700. -1.00000026
 -90.  15800. -1.00000022
 -90.  15900. -1.00000018
 -90.  16000. -1.00000015
 -90.  16100. -1.00000013
 -90.  16200. -1.00000011
 -90.  16300. -1.00000009
 -90.  16400. -1.00000008
 -90.  16500. -1.00000006
 -90.  16600. -1.00000005
 -90.  16700. -1.00000005
 -90.  16800. -1.00000004
 -90.  16900. -1.00000004
 -90.  17000. -1.00000003
 -90.  17100. -1.00000003
 -90.  17200. -1.00000002
 -90.  17300. -1.00000002
 -90.  17400. -1.00000002
 -90.  17500. -1.00000002
 -90.  17600. -1.00000002
 -90.  17700. -1.00000002
 -90.  17800. -1.00000002
 -90.  17900. -1.00000002
 -90.  18000. -1.00000002
 -90.  18100. -1.00000002
 -90.  18200. -1.00000002
 -90.  18300. -1.00000002
 -90.  18400. -1.00000001
 -90.  18500. -1.00000001
 -90.  18600. -1.00000001
 -90.  18700. -1.00000001
 -90.  18800. -1.00000001
 -90.  18900. -1.00000001
 -90.  19000. -1.00000001
 -90.  19100. -1.00000001
 -90.  19200. -1.00000001
 -90.  19300. -1.00000001
 -90.  19400. -1.00000001
 -90.  19500. -1.00000001
 -90.  19600. -1.00000001
 -90.  19700. -1.00000001
 -90.  19800. -1.00000001
 -90.  19900. -1.00000001
 -90.  20000. -1.00000001
 -85. -2000. -17.2398419
 -85. -1900. -16.4899796
 -85. -1800. -15.769877
 -85. -1700. -15.0786029
 -85. -1600. -14.4152429
 -85. -1500. -13.7788995
 -85. -1400. -13.1686922
 -85. -1300. -12.5837586
 -85. -1200. -12.0232537
 -85. -1100. -11.4863508
 -85. -1000. -10.9722412
 -85. -900. -10.4801346
 -85. -800. -10.0092592
 -85. -700. -9.55886143
 -85. -600. -9.12820633
 -85. -500. -8.71657732
 -85. -400. -8.32327618
 -85. -300. -7.94762304
 -85. -200. -7.58895621
 -85. -100. -7.2466321
 -85.  0. -6.92002505
 -85.  100. -6.60852718
 -85.  200. -6.31154817
 -85.  300. -6.02851511
 -85.  400. -5.75887225
 -85.  500. -5.50208076
 -85.  600. -5.2576185
 -85.  700. -5.02497975
 -85.  800. -4.80367494
 -85.  900. -4.59323041
 -85.  1000. -4.39318805
 -85.  1100. -4.20310507
 -85.  1200. -4.02255366
 -85.  1300. -3.8511207
 -85.  1400. -3.68840745
 -85.  1500. -3.53402922
 -85.  1600. -3.38761507
 -85.  1700. -3.24880747
 -85.  1800. -3.11726198
 -85.  1900. -2.99264695
 -85.  2000. -2.87464317
 -85.  2100. -2.76294354
 -85.  2200. -2.65725279
 -85.  2300. -2.5572871
 -85.  2400. -2.46277381
 -85.  2500. -2.37345113
 -85.  2600. -2.28906777
 -85.  2700. -2.20938265
 -85.  2800. -2.13416461
 -85.  2900. -2.06319207
 -85.  3000. -1.99625278
 -85.  3100. -1.93314345
 -85.  3200. -1.87366953
 -85.  3300. -1.81764486
 -85.  3400. -1.76489146
 -85.  3500. -1.71523917
 -85.  3600. -1.66852543
 -85.  3700. -1.62459501
 -85.  3800. -1.58329973
 -85.  3900. -1.54449821
 -85.  4000. -1.50805563
 -85.  4100. -1.47384348
 -85.  4200. -1.44173931
 -85.  4300. -1.41162653
 -85.  4400. -1.38339412
 -85.  4500. -1.35693651
 -85.  4600. -1.33215324
 -85.  4700. -1.30894887
 -85.  4800. -1.28723269
 -85.  4900. -1.26691859
 -85.  5000. -1.24792479
 -85.  5100. -1.23017375
 -85.  5200. -1.21359191
 -85.  5300. -1.19810955
 -85.  5400. -1.18366063
 -85.  5500. -1.17018261
 -85.  5600. -1.1576163
 -85.  5700. -1.14590571
 -85.  5800. -1.13499788
 -85.  5900. -1.1248428
 -85.  6000. -1.11539318
 -85.  6100. -1.10660442
 -85.  6200. -1.09843441
 -85.  6300. -1.09084343
 -85.  6400. -1.08379405
 -85.  6500. -1.07725098
 -85.  6600. -1.07118102
 -85.  6700. -1.0655529
 -85.  6800. -1.0603372
 -85.  6900. -1.05550626
 -85.  7000. -1.0510341
 -85.  7100. -1.0468963
 -85.  7200. -1.04306994
 -85.  7300. -1.03953353
 -85.  7400. -1.03626689
 -85.  7500. -1.03325113
 -85.  7600. -1.03046854
 -85.  7700. -1.02790256
 -85.  7800. -1.02553766
 -85.  7900. -1.02335935
 -85.  8000. -1.02135407
 -85.  8100. -1.01950916
 -85.  8200. -1.01781279
 -85.  8300. -1.01625394
 -85.  8400. -1.01482232
 -85.  8500. -1.01350834
 -85.  8600. -1.01230308
 -85.  8700. -1.01119821
 -85.  8800. -1.01018602
 -85.  8900. -1.0092593
 -85.  9000. -1.00841139
 -85.  9100. -1.00763606
 -85.  9200. -1.00692758
 -85.  9300. -1.0062806
 -85.  9400. -1.00569016
 -85.  9500. -1.00515169
 -85.  9600. -1.00466094
 -85.  9700. -1.00421399
 -85.  9800. -1.0038072
 -85.  9900. -1.00343722
 -85.  10000. -1.00310095
 -85.  10100. -1.00279555
 -85.  10200. -1.00251836
 -85.  10300. -1.00226697
 -85.  10400. -1.00203914
 -85.  10500. -1.00183282
 -85.  10600. -1.0016461
 -85.  10700. -1.00147726
 -85.  10800. -1.0013247
 -85.  10900. -1.00118695
 -85.  11000. -1.00106268
 -85.  11100. -1.00095065
 -85.  11200. -1.00084973
 -85.  11300. -1.00075889
 -85.  11400. -1.0006772
 -85.  11500. -1.00060379
 -85.  11600. -1.00053788
 -85.  11700. -1.00047875
 -85.  11800. -1.00042575
 -85.  11900. -1.00037827
 -85.  12000. -1.00033579
 -85.  12100. -1.00029782
 -85.  12200. -1.00026389
 -85.  12300. -1.00023361
 -85.  12400. -1.00020661
 -85.  12500. -1.00018256
 -85.  12600. -1.00016115
 -85.  12700. -1.00014212
 -85.  12800. -1.00012521
 -85.  12900. -1.0001102
 -85.  13000. -1.00009689
 -85.  13100. -1.0000851
 -85.  13200. -1.00007467
 -85.  13300. -1.00006545
 -85.  13400. -1.0000573
 -85.  13500. -1.00005012
 -85.  13600. -1.00004378
 -85.  13700. -1.00003821
 -85.  13800. -1.00003331
 -85.  13900. -1.000029
 -85.  14000. -1.00002522
 -85.  14100. -1.00002191
 -85.  14200. -1.00001901
 -85.  14300. -1.00001647
 -85.  14400. -1.00001426
 -85.  14500. -1.00001233
 -85.  14600. -1.00001064
 -85.  14700. -1.00000918
 -85.  14800. -1.0000079
 -85.  14900. -1.0000068
 -85.  15000. -1.00000584
 -85.  15100. -1.00000501
 -85.  15200. -1.00000429
 -85.  15300. -1.00000367
 -85.  15400. -1.00000313
 -85.  15500. -1.00000267
 -85.  15600. -1.00000228
 -85.  15700. -1.00000194
 -85.  15800. -1.00000165
 -85.  15900. -1.0000014
 -85.  16000. -1.00000118
 -85.  16100. -1.000001
 -85.  16200. -1.00000085
 -85.  16300. -1.00000071
 -85.  16400. -1.0000006
 -85.  16500. -1.00000051
 -85.  16600. -1.00000043
 -85.  16700. -1.00000036
 -85.  16800. -1.0000003
 -85.  16900. -1.00000025
 -85.  17000. -1.00000021
 -85.  17100. -1.00000018
 -85.  17200. -1.00000015
 -85.  17300. -1.00000013
 -85.  17400. -1.00000011
 -85.  17500. -1.00000009
 -85.  17600. -1.00000008
 -85.  17700. -1.00000006
 -85.  17800. -1.00000005
 -85.  17900. -1.00000005
 -85.  18000. -1.00000004
 -85.  18100. -1.00000004
 -85.  18200. -1.00000003
 -85.  18300. -1.00000003
 -85.  18400. -1.00000003
 -85.  18500. -1.00000002
 -85.  18600. -1.00000002
 -85.  18700. -1.00000002
 -85.  18800. -1.00000002
 -85.  18900. -1.00000002
 -85.  19000. -1.00000002
 -85.  19100. -1.00000002
 -85.  19200. -1.00000002
 -85.  19300. -1.00000002
 -85.  19400. -1.00000002
 -85.  19500. -1.00000002
 -85.  19600. -1.00000002
 -85.  19700. -1.00000002
 -85.  19800. -1.00000002
 -85.  19900. -1.00000001
 -85.  20000. -1.00000001
 -80. -2000. -32.8188405
 -80. -1900. -31.4174322
 -80. -1800. -30.0689299
 -80. -1700. -28.7717662
 -80. -1600. -27.5244001
 -80. -1500. -26.3253168
 -80. -1400. -25.173029
 -80. -1300. -24.0660767
 -80. -1200. -23.0030283
 -80. -1100. -21.9824802
 -80. -1000. -21.0030579
 -80. -900. -20.0634155
 -80. -800. -19.1622361
 -80. -700. -18.2982323
 -80. -600. -17.4701457
 -80. -500. -16.6767473
 -80. -400. -15.9168373
 -80. -300. -15.189245
 -80. -200. -14.4928289
 -80. -100. -13.8264764
 -80.  0. -13.1891036
 -80.  100. -12.5796553
 -80.  200. -11.9971044
 -80.  300. -11.440452
 -80.  400. -10.908727
 -80.  500. -10.4009855
 -80.  600. -9.91631106
 -80.  700. -9.45381365
 -80.  800. -9.01262978
 -80.  900. -8.59192194
 -80.  1000. -8.19087814
 -80.  1100. -7.8087116
 -80.  1200. -7.4446602
 -80.  1300. -7.09798615
 -80.  1400. -6.76797544
 -80.  1500. -6.45393745
 -80.  1600. -6.15520444
 -80.  1700. -5.87113107
 -80.  1800. -5.60109397
 -80.  1900. -5.34449122
 -80.  2000. -5.10074184
 -80.  2100. -4.86928537
 -80.  2200. -4.64958132
 -80.  2300. -4.44110871
 -80.  2400. -4.24336558
 -80.  2500. -4.05586849
 -80.  2600. -3.87815206
 -80.  2700. -3.70976845
 -80.  2800. -3.55028693
 -80.  2900. -3.39929335
 -80.  3000. -3.25638971
 -80.  3100. -3.12119369
 -80.  3200. -2.99333814
 -80.  3300. -2.87247072
 -80.  3400. -2.75825335
 -80.  3500. -2.65036183
 -80.  3600. -2.54848539
 -80.  3700. -2.45232624
 -80.  3800. -2.36159918
 -80.  3900. -2.27603117
 -80.  4000. -2.1953609
 -80.  4100. -2.11933844
 -80.  4200. -2.04772482
 -80.  4300. -1.98029165
 -80.  4400. -1.91682072
 -80.  4500. -1.85710371
 -80.  4600. -1.80094173
 -80.  4700. -1.74814507
 -80.  4800. -1.69853277
 -80.  4900. -1.65193236
 -80.  5000. -1.6081795
 -80.  5100. -1.56711767
 -80.  5200. -1.52859787
 -80.  5300. -1.49247829
 -80.  5400. -1.4586241
 -80.  5500. -1.42690706
 -80.  5600. -1.39720535
 -80.  5700. -1.36940323
 -80.  5800. -1.34339083
 -80.  5900. -1.31906386
 -80.  6000. -1.29632342
 -80.  6100. -1.27507572
 -80.  6200. -1.2552319
 -80.  6300. -1.23670775
 -80.  6400. -1.21942357
 -80.  6500. -1.20330392
 -80.  6600. -1.18827745
 -80.  6700. -1.17427668
